ply
format ascii 1.0
comment PCL generated
element vertex 2435
property float x
property float y
property float z
element camera 0
property float view_px
property float view_py
property float view_pz
property float x_axisx
property float x_axisy
property float x_axisz
property float y_axisx
property float y_axisy
property float y_axisz
property float z_axisx
property float z_axisy
property float z_axisz
property float focal
property float scalex
property float scaley
property float centerx
property float centery
property int viewportx
property int viewporty
property float k1
property float k2
end_header
85 -35 7.0106506
84 -36 7.4526587
84 -36 7.9967203
83 -36 8.5408373
82 -37 8.9829683
81 -37 9.5271816
81 -37 9.9693928
80 -37 10.411617
79 -38 10.955974
79 -38 11.500413
78 -38 12.044883
77 -39 12.691535
77 -39 13.338269
76 -40 13.985073
75 -40 14.734111
75 -40 15.483252
74 -41 16.232483
73 -41 17.084002
73 -42 18.140045
72 -43 19.093998
71 -43 20.252554
71 -44 21.309032
70 -45 22.570175
70 -45 23.933729
69 -46 25.399763
69 -47 26.968302
68 -48 28.843912
-50 -49 27.628775
-50 -47 23.103649
-51 -45 20.234272
-52 -44 18.917503
-53 -44 18.325335
-53 -44 17.836601
-54 -43 17.347733
-55 -43 16.755196
-56 -43 16.058947
-56 -42 15.362552
-57 -42 14.562413
-58 -41 13.762109
-59 -41 12.961672
-59 -40 12.368279
-60 -40 11.774789
-61 -40 11.284822
-62 -40 10.691091
-63 -39 10.304557
-63 -39 9.7105627
-64 -39 9.3238344
-65 -38 8.7296286
-66 -38 8.3426771
-66 -38 7.9556561
-67 -38 7.5685401
-68 -38 7.1813083
-69 -37 6.7940168
-69 -37 6.3028626
-70 -37 5.91538
-71 -37 5.6315379
-72 -37 5.3476415
-73 -36 5.0636539
-73 -36 4.7796159
-74 -36 4.4954796
-75 -36 4.315062
-76 -36 3.9270103
-76 -36 3.74647
-77 -36 3.3582454
-78 -36 3.1775763
-79 -35 2.7891951
-80 -35 2.6083953
-80 -35 2.3236845
-81 -35 2.0389254
-82 -35 1.8579417
-83 -35 1.6769036
-83 -35 1.3919404
-84 -35 1.2107809
-85 -34 1.0295682
-86 -34 0.84832251
-87 -34 0.66699713
-87 -34 0.58954835
-88 -34 0.4081232
-89 -34 0.22666506
-90 -34 0.2530393
-91 -34 0.071465939
-91 -34 0.097781159
-92 -34 0.020090522
-93 -34 -0.057635456
-94 -34 -0.03140137
-95 -34 -0.1091995
-95 -34 -0.18700832
-96 -34 -0.16086099
-97 -34 -0.2387647
-98 -34 -0.31670412
-99 -34 -0.29063508
-99 -34 -0.36864448
-100 -34 -0.44669491
-101 -34 -0.42070752
-102 -34 -0.39474198
-103 -34 -0.47288758
-104 -34 -0.55104399
-104 -34 -0.52516055
-105 -34 -0.49929956
-106 -34 -0.57757813
-107 -34 -0.55176812
-108 -34 -0.52598083
-108 -34 -0.60435253
-109 -34 -0.57861775
-110 -34 -0.55290121
-111 -34 -0.4230375
-112 -34 -0.39735484
-113 -34 -0.37169501
-113 -34 -0.34605417
-114 -35 -0.2162392
-115 -35 -0.19063231
-116 -35 -0.060853921
-117 -35 0.2773903
-118 -35 0.40719149
-119 -35 1.162411
142 -29 -4.7707906
141 -30 -4.6325064
140 -30 -4.3930898
139 -30 -4.2548804
139 -30 -4.0155511
138 -30 -3.8774245
137 -30 -3.7393463
136 -30 -3.60131
135 -30 -3.5645671
134 -30 -3.4266367
134 -30 -3.2887495
133 -30 -3.2521796
132 -30 -3.2156856
131 -30 -3.2805531
130 -30 -3.2441986
129 -30 -3.2079084
129 -30 -3.1716852
128 -30 -3.1355195
127 -30 -3.0994234
126 -30 -3.0633874
125 -30 -2.926039
124 -30 -2.8901176
123 -30 -2.8542659
123 -30 -2.9198811
122 -30 -2.884161
121 -30 -2.8485026
120 -30 -2.8129034
119 -31 -2.7773671
118 -31 -2.7418883
118 -30 -2.8079507
117 -31 -2.7726026
116 -31 -2.7373173
115 -31 -2.7020888
114 -31 -2.5653985
113 -31 -2.5302775
113 -31 -2.4952157
112 -31 -2.3586514
111 -31 -2.3236957
110 -31 -2.1872396
109 -31 -2.0507979
108 -31 -2.0159874
108 -31 -1.8796242
107 -31 -1.7432978
106 -31 -1.6070037
105 -31 -1.4707432
104 -31 -1.2328956
104 -31 -1.0966944
103 -32 -0.96051872
102 -32 -0.7227056
101 -32 -0.48489413
101 -32 -0.34882522
100 -32 -0.11104993
99 -32 0.024983784
98 -32 0.2627283
97 -32 0.50043786
97 -33 0.73815978
96 -33 0.97587144
95 -33 1.3153208
94 -33 1.553028
94 -33 1.8925205
93 -33 2.2319963
92 -34 2.571512
92 -34 3.0128407
91 -34 3.3523893
90 -34 3.6919253
89 -35 4.133359
89 -35 4.4729247
88 -35 4.9144144
87 -35 5.3559113
86 -36 5.7974644
86 -36 6.340941
85 -36 6.8844666
84 -37 7.4280505
84 -37 7.8697701
83 -37 8.4134521
82 -37 8.8552456
82 -38 9.2970552
81 -38 9.8408775
80 -38 10.28279
79 -39 10.724706
79 -39 11.268674
78 -39 11.812719
77 -40 12.458829
77 -40 13.002968
76 -40 13.649215
75 -41 14.397599
75 -41 15.146083
74 -42 15.894654
73 -42 16.745419
73 -43 17.596296
72 -43 18.651487
71 -44 19.70686
71 -45 20.864494
70 -45 22.022324
70 -46 23.384613
69 -47 24.849274
69 -48 26.416342
68 -49 28.29018
-49 -52 29.943539
-50 -50 26.871197
-50 -47 22.660646
-51 -46 19.897436
-52 -45 18.685371
-52 -45 17.99032
-53 -44 17.502048
-54 -44 17.013645
-55 -44 16.318195
-56 -43 15.726084
-56 -43 15.133849
-57 -43 14.33448
-58 -42 13.638458
-59 -42 12.838772
-59 -41 12.142457
-60 -41 11.549533
-61 -41 10.956487
-62 -40 10.466873
-63 -40 9.9771481
-63 -40 9.4872856
-64 -40 8.997344
-65 -39 8.6108837
-66 -39 8.2243052
-66 -39 7.7340512
-67 -39 7.4508986
-68 -38 6.9604483
-69 -38 6.5735178
-70 -38 6.1864772
-70 -38 5.7993684
-71 -38 5.5158019
-72 -37 5.1285162
-73 -37 4.9484706
-73 -37 4.6646805
-74 -37 4.3808446
-75 -37 4.2006063
-76 -37 3.8129199
-77 -37 3.6325536
-77 -36 3.2447028
-78 -36 3.0642078
-79 -36 2.779911
-80 -36 2.4955726
-80 -36 2.2111304
-81 -36 2.0303824
-82 -36 1.7458259
-83 -36 1.5649619
-84 -36 1.3840337
-84 -35 1.2030809
-85 -35 1.0220423
-86 -35 0.84095353
-87 -35 0.65982765
-87 -35 0.47862533
-88 -35 0.40120474
-89 -35 0.32375121
-90 -35 0.14239527
-91 -35 0.16871421
-91 -35 0.091164805
-92 -35 0.013548659
-93 -35 -0.064103954
-94 -35 -0.037901055
-95 -35 -0.11561969
-95 -35 -0.089469321
-96 -35 -0.16726114
-97 -35 -0.24509452
-98 -35 -0.32296368
-99 -35 -0.29692686
-100 -35 -0.37483436
-100 -35 -0.34885335
-101 -35 -0.42686102
-102 -35 -0.50490785
-103 -35 -0.47900441
-104 -35 -0.45312425
-104 -35 -0.53126818
-105 -35 -0.50543863
-106 -35 -0.47963434
-107 -35 -0.55788052
-108 -35 -0.53212386
-109 -35 -0.50639391
-109 -35 -0.48068115
-110 -35 -0.45499676
-111 -35 -0.42932579
-112 -35 -0.40368927
-113 -35 -0.37806287
-114 -35 -0.24836756
-114 -35 -0.22278558
-115 -36 -0.093109451
-116 -36 -0.067558125
-117 -36 0.1662212
-118 -36 0.81651109
-119 -36 0.52964067
142 -30 -4.9954181
141 -30 -4.8571401
140 -30 -4.6178255
139 -31 -4.4796543
139 -31 -4.1393075
138 -31 -4.0011802
137 -31 -3.7619755
136 -31 -3.7250705
135 -31 -3.5871065
135 -31 -3.4491646
134 -31 -3.4124341
133 -31 -3.2745938
132 -31 -3.2379868
131 -31 -3.3026474
130 -31 -3.2661855
130 -31 -3.2297902
129 -31 -3.1934559
128 -31 -3.1571903
127 -31 -3.1209891
126 -31 -3.0848501
125 -31 -3.0487776
124 -31 -3.0127673
124 -31 -2.9768217
123 -31 -2.9409366
122 -31 -2.9051187
121 -31 -2.8693559
120 -31 -2.8336589
119 -31 -2.7980261
119 -31 -2.762449
118 -31 -2.7269323
117 -32 -2.6914849
116 -32 -2.6560879
115 -32 -2.6207576
114 -32 -2.5854855
114 -32 -2.550267
113 -32 -2.5151119
112 -32 -2.4800124
111 -32 -2.3435056
110 -32 -2.207036
109 -32 -2.1720903
109 -32 -2.0357027
108 -32 -1.8993498
107 -32 -1.7630377
106 -32 -1.6267833
105 -32 -1.4905294
105 -32 -1.3543181
104 -32 -1.1165802
103 -33 -0.98042154
102 -33 -0.84429908
101 -33 -0.60664177
101 -33 -0.36897185
100 -33 -0.13131262
99 -33 0.0047109816
98 -33 0.24231444
98 -33 0.47992858
97 -34 0.71753442
96 -34 0.95510238
95 -34 1.2943633
95 -34 1.53195
94 -34 1.8711964
93 -34 2.2104776
92 -35 2.549747
92 -35 2.8890536
91 -35 3.3300827
90 -35 3.5676732
89 -35 4.0087719
89 -36 4.3481102
88 -36 4.7892423
87 -36 5.2304292
87 -36 5.6716299
86 -37 6.2146916
85 -37 6.7577882
84 -37 7.1991043
84 -38 7.7423258
83 -38 8.1837196
82 -38 8.6251402
82 -39 9.1685009
81 -39 9.6100092
80 -39 10.051566
79 -39 10.595045
79 -40 11.036658
78 -40 11.478333
77 -40 12.123887
77 -41 12.769508
76 -41 13.313255
75 -42 14.060985
75 -42 14.706832
74 -42 15.352778
73 -43 16.202744
73 -43 17.154846
72 -44 18.107082
71 -45 19.161453
71 -45 20.216003
70 -46 21.372726
70 -47 22.73373
69 -48 24.094975
69 -49 25.762596
68 -50 27.736765
68 -51 29.813328
-50 -51 26.217661
-50 -48 22.217743
-51 -47 19.560505
-52 -46 18.3496
-52 -46 17.758568
-53 -45 17.167408
-54 -45 16.679468
-55 -44 15.984675
-56 -44 15.393132
-56 -44 14.801465
-57 -43 14.209665
-58 -43 13.410909
-59 -43 12.611987
-59 -42 12.019773
-60 -42 11.32399
-61 -42 10.834963
-62 -41 10.242364
-63 -41 9.753089
-63 -41 9.2637224
-64 -40 8.8777294
-65 -40 8.3881311
-66 -40 8.0019484
-66 -40 7.5121665
-67 -39 7.1257601
-68 -39 6.739295
-69 -39 6.3527088
-70 -39 5.9660597
-70 -39 5.5793176
-71 -38 5.2960143
-72 -38 5.0126443
-73 -38 4.7292233
-73 -38 4.5492821
-74 -38 4.265717
-75 -38 3.9820559
-76 -38 3.6983211
-77 -38 3.518152
-77 -37 3.2342796
-78 -37 2.9503529
-79 -37 2.6663308
-80 -37 2.3822317
-80 -37 2.2017474
-81 -37 1.917514
-82 -37 1.7368815
-83 -36 1.4525341
-84 -36 1.2717797
-84 -36 1.0909669
-85 -36 0.91012686
-86 -36 0.72920531
-87 -36 0.65194774
-87 -36 0.47091949
-88 -36 0.39360183
-89 -36 0.212476
-90 -36 0.135042
-91 -36 0.05756982
-91 -36 0.083836831
-92 -36 0.0062962989
-93 -36 -0.07128381
-94 -36 -0.045105968
-95 -36 -0.018946789
-96 -36 -0.096602388
-96 -36 -0.17432638
-97 -36 -0.14825654
-98 -36 -0.22604576
-99 -36 -0.30387431
-100 -36 -0.27789104
-100 -36 -0.35578656
-101 -36 -0.433727
-102 -36 -0.40782988
-103 -36 -0.48584041
-104 -36 -0.4599883
-104 -36 -0.5380432
-105 -36 -0.51224929
-106 -36 -0.48647806
-107 -36 -0.46072826
-108 -36 -0.43499815
-109 -36 -0.40929919
-109 -36 -0.38361582
-110 -36 -0.35795382
-111 -36 -0.43628675
-112 -36 -0.30670759
-113 -36 -0.38509813
-114 -36 -0.2555435
-114 -36 -0.22999606
-115 -37 0.0035169991
-116 -37 0.13305409
-117 -37 0.26258317
-118 -37 0.28806847
140 -31 -4.8429146
139 -31 -4.603735
139 -32 -4.2635899
138 -32 -4.1254587
137 -32 -3.8863826
136 -32 -3.8493714
136 -32 -3.6103401
135 -32 -3.5734446
134 -32 -3.4355462
133 -32 -3.3987727
132 -32 -3.3620689
131 -32 -3.325434
131 -32 -3.1877513
130 -32 -3.2523615
129 -32 -3.2159257
128 -32 -3.179554
127 -32 -3.1432459
126 -32 -3.1070082
126 -32 -2.9696505
125 -32 -2.9335239
124 -32 -2.8974724
123 -32 -2.8614714
122 -32 -2.8255341
121 -32 -2.7896674
120 -32 -2.75386
120 -32 -2.7181153
119 -32 -2.6824305
118 -32 -2.7480915
117 -32 -2.7125421
116 -32 -2.6770508
115 -32 -2.6416242
114 -33 -2.6062562
114 -33 -2.5709455
113 -33 -2.5356994
112 -33 -2.500509
111 -33 -2.3640087
110 -33 -2.3289225
110 -33 -2.1925063
109 -33 -2.1575289
108 -33 -2.0212195
107 -33 -1.8849247
106 -33 -1.7486643
106 -33 -1.5110018
105 -33 -1.3748001
104 -33 -1.2386357
103 -33 -1.0010566
102 -34 -0.86494619
102 -34 -0.62737966
101 -34 -0.38982388
100 -34 -0.25381887
99 -34 -0.016295217
99 -34 0.22121306
98 -34 0.45871669
97 -34 0.69617552
96 -35 0.93365508
95 -35 1.1711152
95 -35 1.5101383
94 -35 1.8491906
93 -35 2.086643
92 -36 2.4256845
92 -36 2.8663871
91 -36 3.2054586
90 -36 3.5445688
90 -36 3.8836625
89 -37 4.3244619
88 -37 4.6635861
87 -37 5.1044464
87 -37 5.5453119
86 -38 6.0879178
85 -38 6.6306047
85 -38 7.0715904
84 -39 7.614347
83 -39 8.0554314
82 -39 8.4965172
82 -39 8.9376678
81 -40 9.37883
80 -40 9.8200169
79 -40 10.261268
79 -41 10.80434
78 -41 11.347464
77 -41 11.890673
77 -42 12.433902
76 -42 12.977194
75 -42 13.622397
75 -43 14.369552
74 -43 15.014944
73 -44 15.762275
73 -44 16.71349
72 -45 17.562944
71 -45 18.616365
71 -46 19.669912
70 -47 20.825586
70 -47 22.083363
69 -48 23.545259
69 -49 25.211332
68 -50 27.183607
68 -52 29.258205
-50 -51 25.35815
-50 -49 21.67174
-51 -47 19.223476
-52 -47 18.11698
-52 -46 17.423262
-53 -46 16.832668
-54 -46 16.241917
-55 -45 15.651065
-56 -45 15.060085
-56 -45 14.572275
-57 -44 13.877743
-58 -44 13.183058
-59 -43 12.488234
-59 -43 11.689931
-60 -43 11.098151
-61 -42 10.506242
-62 -42 10.017546
-63 -42 9.5287561
-63 -42 9.0398617
-64 -41 8.5508556
-65 -41 8.1651087
-66 -41 7.7792916
-66 -41 7.2899785
-67 -40 7.0073633
-68 -40 6.6212702
-69 -40 6.2350631
-70 -40 5.8487906
-70 -40 5.4623976
-71 -39 5.179399
-72 -39 4.8963003
-73 -39 4.6131535
-73 -39 4.3299079
-74 -39 4.1500807
-75 -39 3.8667121
-76 -39 3.5832522
-77 -38 3.4032321
-77 -38 3.0161271
-78 -38 2.835979
-79 -38 2.5522535
-80 -38 2.2684293
-80 -38 2.0880878
-81 -38 1.9077152
-82 -38 1.6236886
-83 -37 1.4431672
-84 -37 1.2626184
-84 -37 1.0819864
-85 -37 0.9012993
-86 -37 0.72057831
-87 -37 0.64339966
-88 -37 0.46254656
-88 -37 0.38527986
-89 -37 0.20432694
-90 -37 0.1269965
-91 -37 0.15326698
-92 -37 0.075839646
-92 -37 -0.001627262
-93 -37 0.024558274
-94 -37 -0.052982602
-95 -37 -0.13055666
-96 -37 -0.10446315
-96 -37 -0.078388385
-97 -37 -0.15606846
-98 -37 -0.23378734
-99 -37 -0.3115215
-100 -37 -0.38932109
-100 -37 -0.36339849
-101 -37 -0.44127256
-102 -37 -0.51917982
-103 -37 -0.49334207
-104 -37 -0.46752703
-105 -37 -0.5455367
-105 -37 -0.51977956
-106 -37 -0.49404091
-107 -37 -0.46832645
-108 -37 -0.4426367
-109 -37 -0.4169659
-110 -37 -0.39132342
-110 -37 -0.3657001
-111 -37 -0.44396934
-112 -37 -0.41840374
-113 -37 -0.39285529
-114 -37 -0.26344419
-115 -37 -0.13403592
-116 -38 0.099273853
-117 -38 0.85214752
-117 -38 1.0854908
140 -32 -4.9674158
140 -32 -4.7283368
139 -32 -4.4892864
138 -33 -4.2502856
137 -33 -4.0112777
136 -33 -3.9741685
136 -33 -3.7352355
135 -33 -3.698236
134 -33 -3.5603459
133 -33 -3.5234759
132 -33 -3.3857114
132 -33 -3.3489609
131 -33 -3.3122866
130 -33 -3.275676
129 -33 -3.2391303
128 -33 -3.2026579
127 -33 -3.1662447
126 -33 -3.1298993
126 -33 -3.0936208
125 -33 -2.956316
124 -33 -2.920155
123 -33 -2.8840547
122 -33 -2.8480244
121 -33 -2.8120494
121 -33 -2.7761409
120 -33 -2.7403021
119 -33 -2.8056889
118 -33 -2.7699776
117 -33 -2.7343326
116 -33 -2.6987476
115 -33 -2.6632254
115 -33 -2.6277616
114 -33 -2.5923603
113 -33 -2.5570171
112 -34 -2.5217311
111 -34 -2.4865036
110 -34 -2.3500643
110 -34 -2.2136557
109 -34 -2.1785891
108 -34 -2.0422668
107 -34 -1.9059805
106 -34 -1.7697346
106 -34 -1.6335187
105 -34 -1.3960128
104 -34 -1.2598594
103 -34 -1.1237376
103 -34 -0.88627309
102 -35 -0.64884037
101 -35 -0.41140419
100 -35 -0.27539077
99 -35 -0.037981689
99 -35 0.19938968
98 -35 0.43676654
97 -35 0.67413676
96 -36 0.91149563
96 -36 1.148818
95 -36 1.3861551
94 -36 1.7249807
93 -36 2.0637896
93 -36 2.4026377
92 -37 2.7414675
91 -37 3.0803299
90 -37 3.4191813
90 -37 3.7580686
89 -38 4.1985145
88 -38 4.6390181
87 -38 5.079525
87 -38 5.4184885
86 -39 5.9606638
85 -39 6.502893
85 -39 6.9435639
84 -39 7.3842502
83 -40 7.8249865
82 -40 8.1640663
82 -40 8.6048555
81 -40 9.045661
80 -41 9.4864931
80 -41 10.029088
79 -41 10.571713
78 -42 11.012666
77 -42 11.555414
77 -42 12.098189
76 -43 12.64102
75 -43 13.285666
75 -43 13.930411
74 -44 14.575209
73 -44 15.321876
73 -45 16.170439
72 -45 17.120913
71 -46 18.071541
71 -47 19.124109
70 -47 20.176863
70 -48 21.433449
69 -49 22.893963
69 -50 24.558464
68 -51 26.630743
68 -52 28.703377
-50 -52 24.705797
-50 -50 21.332262
-51 -48 18.886351
-52 -47 17.780909
-52 -47 17.191017
-53 -47 16.497824
-54 -46 15.907642
-55 -46 15.317351
-56 -46 14.830128
-56 -45 14.136395
-57 -45 13.545721
-58 -45 12.8517
-59 -44 12.157533
-60 -44 11.566459
-60 -44 10.872017
-61 -43 10.280677
-62 -43 9.7924471
-63 -43 9.3041344
-63 -42 8.8157072
-64 -42 8.4304285
-65 -42 7.9417944
-66 -42 7.4530458
-66 -41 7.0674753
-67 -41 6.6818399
-68 -41 6.3994074
-69 -41 6.0135903
-70 -41 5.6276855
-70 -40 5.2416596
-71 -40 5.0622678
-72 -40 4.6760979
-73 -40 4.3931942
-73 -40 4.2136245
-74 -40 3.930578
-75 -40 3.7508521
-76 -39 3.4676878
-77 -39 3.1844254
-77 -39 2.9011126
-78 -39 2.7211368
-79 -39 2.4376612
-80 -39 2.154129
-80 -39 1.9739614
-81 -39 1.793738
-82 -38 1.6134804
-83 -38 1.4331361
-84 -38 1.2527421
-84 -38 1.0723091
-85 -38 0.89180273
-86 -38 0.71123481
-87 -38 0.53060478
-88 -38 0.45348063
-88 -38 0.37629369
-89 -38 0.19551282
-90 -38 0.11823247
-91 -38 0.040912639
-92 -38 0.067127302
-92 -38 -0.010268751
-93 -38 0.01589225
-94 -38 -0.06154922
-95 -38 -0.035446372
-96 -38 -0.11298482
-96 -38 -0.19056407
-97 -38 -0.16454658
-98 -38 -0.1385584
-99 -38 -0.21624365
-100 -38 -0.29396746
-101 -38 -0.37172619
-101 -38 -0.44952965
-102 -38 -0.423693
-103 -38 -0.50154483
-104 -38 -0.47576264
-105 -38 -0.45000404
-105 -38 -0.52798128
-106 -38 -0.39855415
-107 -38 -0.47659945
-108 -38 -0.45094091
-109 -38 -0.42530957
-110 -38 -0.39970219
-110 -38 -0.37411922
-111 -38 -0.34856048
-112 -38 -0.3230215
-113 -38 -0.29750404
-114 -38 -0.27201468
-115 -38 -0.038973846
-116 -39 0.29791003
-117 -39 0.84242469
-118 -40 2.9443083
140 -33 -4.8534646
139 -33 -4.6145306
138 -33 -4.3755975
137 -34 -4.1366973
137 -34 -4.0994854
136 -34 -3.8606763
135 -34 -3.8235829
134 -34 -3.6856854
133 -34 -3.5478451
133 -34 -3.5109336
132 -34 -3.4740891
131 -34 -3.3364043
130 -34 -3.299686
129 -34 -3.263031
128 -34 -3.226454
127 -34 -3.189939
127 -34 -3.1534894
126 -34 -3.0161231
125 -34 -2.9797966
124 -34 -2.9435306
123 -34 -2.9073322
122 -34 -2.8711972
122 -34 -2.8351252
121 -34 -2.7991238
120 -34 -2.763176
119 -34 -2.727298
118 -34 -2.7925584
117 -34 -2.7568185
116 -34 -2.7211318
116 -34 -2.685519
115 -34 -2.6499553
114 -34 -2.6144557
113 -34 -2.5790215
112 -34 -2.5436435
111 -35 -2.4071605
111 -35 -2.3718939
110 -35 -2.3366811
109 -35 -2.2003317
108 -35 -2.0640185
107 -35 -1.9277688
107 -35 -1.791532
106 -35 -1.6553308
105 -35 -1.5191653
104 -35 -1.2817705
103 -35 -1.1456642
103 -35 -0.90833187
102 -36 -0.7722916
101 -36 -0.53496921
100 -36 -0.29766631
100 -36 -0.060401559
99 -36 0.17687903
98 -36 0.41414452
97 -36 0.65137404
96 -37 0.88861471
96 -37 1.1258425
95 -37 1.3630563
94 -37 1.6002389
93 -37 1.9388453
93 -37 2.2774367
92 -38 2.6160634
91 -38 2.9546926
90 -38 3.293314
90 -38 3.6319704
89 -38 4.0720873
88 -39 4.5122294
88 -39 4.9524322
87 -39 5.3926401
86 -40 5.8329048
85 -40 6.3747005
85 -40 6.8150148
84 -40 7.2553859
83 -41 7.5942082
83 -41 8.0346327
82 -41 8.4750652
81 -41 8.8139706
80 -42 9.2544546
80 -42 9.7966042
79 -42 10.237169
78 -42 10.677757
77 -43 11.321688
77 -43 11.762369
76 -43 12.304739
75 -44 12.948831
75 -44 13.593019
74 -45 14.237254
73 -45 14.983261
73 -46 15.83107
72 -46 16.678967
71 -47 17.628727
71 -47 18.578625
70 -48 19.630373
69 -49 20.784052
69 -50 22.243185
68 -51 23.906069
68 -52 25.976402
68 -53 28.148857
-49 -54 26.805574
-50 -52 24.156944
-50 -50 20.889654
-51 -49 18.652163
-52 -48 17.547794
-52 -48 16.855413
-53 -48 16.162886
-54 -47 15.573272
-55 -47 14.983545
-56 -47 14.393691
-56 -46 13.80371
-57 -46 13.213601
-58 -45 12.520244
-59 -45 11.826739
-59 -45 11.236228
-60 -44 10.645583
-61 -44 10.054794
-62 -44 9.5670557
-63 -43 9.0792131
-63 -43 8.5912542
-64 -43 8.1031647
-65 -43 7.7181849
-66 -42 7.3331056
-66 -42 6.8447018
-67 -42 6.5626521
-68 -42 6.1772709
-69 -42 5.7918239
-70 -41 5.4062619
-70 -41 5.0206313
-71 -41 4.8413992
-72 -41 4.455605
-73 -41 4.2762394
-73 -41 3.9935579
-74 -40 3.7107809
-75 -40 3.5312212
-76 -40 3.3516376
-77 -40 3.0686467
-77 -40 2.7855783
-78 -40 2.6058004
-79 -40 2.3225949
-80 -40 2.0393369
-81 -40 1.859342
-81 -39 1.6792899
-82 -39 1.4991782
-83 -39 1.3190297
-84 -39 1.1388069
-84 -39 0.95851797
-85 -39 0.77820283
-86 -39 0.70122206
-87 -39 0.62419266
-88 -39 0.4436973
-88 -39 0.3665826
-89 -39 0.28942618
-90 -39 0.21225345
-91 -39 0.13501519
-92 -39 0.057738736
-92 -39 -0.01957617
-93 -39 0.006552258
-94 -39 -0.070839122
-95 -39 -0.044764351
-96 -39 -0.12223031
-97 -39 -0.096212648
-97 -39 -0.17375126
-98 -39 -0.25131017
-99 -39 -0.22538073
-100 -39 -0.30303618
-101 -39 -0.38072905
-101 -39 -0.3548913
-102 -39 -0.43265778
-103 -39 -0.51046705
-104 -39 -0.48471603
-105 -39 -0.45899162
-106 -39 -0.43329248
-106 -39 -0.40761688
-107 -39 -0.38196102
-108 -39 -0.3563365
-109 -39 -0.33073428
-110 -39 -0.3051554
-111 -39 -0.27960044
-111 -39 -0.25407019
-112 -39 -0.33223692
-113 -39 -0.30676585
-114 -39 -0.28131321
-115 -39 0.055213191
-116 -40 0.18434469
-117 -40 1.0394626
-118 -41 3.1393151
140 -34 -4.9791341
139 -34 -4.7402797
138 -34 -4.5014434
138 -34 -4.3633609
137 -35 -4.2253504
136 -35 -3.9866185
135 -35 -3.8486633
134 -35 -3.7107589
134 -35 -3.6736836
133 -35 -3.6366789
132 -35 -3.4989393
131 -35 -3.46205
130 -35 -3.3244162
129 -35 -3.2876563
128 -35 -3.2509708
128 -35 -3.214349
127 -35 -3.1777947
126 -35 -3.1413085
125 -35 -3.0040195
124 -35 -2.9676523
123 -35 -2.9313507
123 -35 -2.7941949
122 -35 -2.8589404
121 -35 -2.8228424
120 -35 -2.7867947
119 -35 -2.8517599
118 -35 -2.8158593
117 -35 -2.7800112
117 -35 -2.7442379
116 -35 -2.708519
115 -35 -2.6728642
114 -35 -2.6372695
113 -35 -2.6017404
112 -35 -2.5662692
112 -35 -2.5308595
111 -36 -2.3944554
110 -36 -2.3591576
109 -36 -2.2228141
108 -36 -2.0865099
108 -36 -1.9502501
107 -36 -1.8140194
106 -36 -1.6778307
105 -36 -1.5416738
104 -36 -1.4055818
104 -36 -1.1683224
103 -36 -0.9310807
102 -36 -0.79504836
101 -37 -0.55786753
100 -37 -0.32068422
100 -37 -0.083506458
99 -37 0.05242116
98 -37 0.28953496
97 -37 0.52666324
97 -37 0.7637741
96 -38 1.0008737
95 -38 1.2379392
94 -38 1.5763137
94 -38 1.9146831
93 -38 2.1517539
92 -38 2.4901481
91 -39 2.8285241
91 -39 3.1669385
90 -39 3.5053384
89 -39 3.9451504
88 -40 4.3849621
88 -40 4.8248286
87 -40 5.2647033
86 -40 5.7046132
86 -41 6.2460036
85 -41 6.584548
84 -41 7.0245719
83 -41 7.4646082
83 -42 7.7017617
82 -42 8.1418381
81 -42 8.5819683
80 -42 9.022109
80 -43 9.462306
79 -43 10.00403
78 -43 10.444277
77 -44 10.986116
77 -44 11.426441
76 -44 12.069907
75 -45 12.611884
75 -45 13.255511
74 -45 13.89919
73 -46 14.644542
73 -46 15.389983
72 -47 16.237135
71 -47 17.186005
71 -48 18.033396
70 -49 18.982546
69 -49 20.135111
69 -50 21.491188
68 -51 23.254192
68 -52 25.322519
68 -54 27.594593
67 -55 29.663637
-49 -55 26.254507
-50 -53 23.711298
-50 -51 20.550081
-51 -50 18.417677
-52 -49 17.211426
-52 -49 16.519711
-53 -48 15.930795
-54 -48 15.341775
-55 -48 14.649634
-56 -47 14.060344
-56 -47 13.470925
-57 -47 12.778369
-58 -46 12.085664
-59 -46 11.495842
-59 -45 10.90589
-60 -45 10.31581
-61 -45 9.8286333
-62 -45 9.3413715
-63 -44 8.8539972
-63 -44 8.3665075
-64 -44 7.9819732
-65 -44 7.4942746
-66 -43 7.0064664
-66 -43 6.6216316
-67 -43 6.3398514
-68 -43 5.9548421
-69 -42 5.5697627
-70 -42 5.1845622
-70 -42 4.9024529
-71 -42 4.6202407
-72 -42 4.3379779
-73 -42 4.055613
-73 -41 3.7731721
-74 -41 3.5938778
-75 -41 3.4144983
-76 -41 3.1318498
-77 -41 2.8491499
-77 -41 2.6695762
-78 -41 2.3867321
-79 -41 2.2070332
-80 -41 1.9240241
-81 -40 1.744225
-81 -40 1.5643413
-82 -40 1.3844023
-83 -40 1.2044041
-84 -40 1.0243701
-85 -40 0.94755906
-85 -40 0.76739377
-86 -40 0.69048476
-87 -40 0.51023716
-88 -40 0.43324059
-89 -40 0.35620594
-89 -40 0.27912563
-90 -40 0.20200023
-91 -40 0.12483922
-92 -40 0.047635876
-93 -40 0.073773295
-93 -40 -0.0034774586
-94 -40 -0.080799364
-95 -40 -0.054757509
-96 -40 -0.13214785
-97 -40 -0.20958476
-97 -40 -0.18363078
-98 -40 -0.15769997
-99 -40 -0.23523936
-100 -40 -0.3128306
-101 -40 -0.28698757
-102 -40 -0.36464629
-102 -40 -0.33886462
-103 -40 -0.41657212
-104 -40 -0.39084989
-105 -40 -0.36515236
-106 -40 -0.33948007
-107 -40 -0.31382939
-107 -40 -0.28820124
-108 -40 -0.26260749
-109 -40 -0.3405785
-110 -40 -0.31503218
-111 -40 -0.28952059
-111 -40 -0.36759478
-112 -40 -0.34213296
-113 -40 -0.31670111
-114 -40 -0.084104754
-115 -40 0.044871688
-116 -40 0.070258684
-117 -41 0.51007837
139 -35 -4.8665457
138 -35 -4.7284241
138 -35 -4.4897532
137 -35 -4.2510843
136 -36 -4.1130834
135 -36 -3.9751298
134 -36 -3.8372273
134 -36 -3.8000503
133 -36 -3.6622779
132 -36 -3.6252317
131 -36 -3.4875417
130 -36 -3.4506164
129 -36 -3.4137614
129 -36 -3.3769794
128 -36 -3.2395065
127 -36 -3.2028503
126 -36 -3.065474
125 -36 -3.0289397
124 -36 -2.9924686
124 -36 -2.9560685
123 -36 -2.8189042
122 -36 -2.8834546
121 -36 -2.8472469
120 -36 -2.8111084
119 -36 -2.7750263
119 -36 -2.7390127
118 -36 -2.8039548
117 -36 -2.768079
116 -36 -2.7322628
115 -36 -2.6965156
114 -36 -2.6608229
113 -36 -2.6252027
113 -36 -2.5896366
112 -36 -2.5541303
111 -36 -2.417711
110 -36 -2.3823199
109 -37 -2.3469887
108 -37 -2.1096892
108 -37 -2.0744574
107 -37 -1.9382507
106 -37 -1.8021085
105 -37 -1.5649205
104 -37 -1.4288127
104 -37 -1.2927442
103 -37 -1.0556289
102 -37 -0.81854069
101 -38 -0.58145201
101 -38 -0.34438199
100 -38 -0.2084453
99 -38 0.028564293
98 -38 0.26558861
97 -38 0.40144035
97 -38 0.6384201
96 -38 0.87537569
95 -39 1.2135257
94 -39 1.4504794
94 -39 1.788615
93 -39 2.0255606
92 -39 2.3637025
91 -40 2.701875
91 -40 3.1412868
90 -40 3.4794927
89 -40 3.817678
88 -41 4.2571855
88 -41 4.6966968
87 -41 5.1362643
86 -41 5.575839
86 -42 6.0154672
85 -42 6.4551053
84 -42 6.7934499
83 -42 7.2331381
83 -43 7.5715098
82 -43 7.9098778
81 -43 8.3496656
80 -43 8.7894592
80 -44 9.2292805
79 -44 9.6691628
78 -44 10.109054
77 -44 10.650434
77 -45 11.090395
76 -45 11.631854
75 -45 12.274828
75 -46 12.917896
74 -46 13.561014
73 -47 14.305708
73 -47 15.050495
72 -48 15.795367
71 -48 16.641836
71 -49 17.488451
70 -49 18.335176
69 -50 19.385126
69 -51 20.841478
68 -52 22.501188
68 -53 24.669119
68 -54 26.939014
67 -56 29.107685
-49 -55 25.703705
-50 -54 23.265753
-50 -52 20.107567
-51 -51 17.977209
-52 -50 16.874958
-52 -50 16.183907
-53 -49 15.595556
-54 -49 15.007099
-55 -48 14.315625
-56 -48 13.726898
-56 -48 13.03514
-57 -47 12.343233
-58 -47 11.754107
-59 -47 11.061917
-59 -46 10.575459
-60 -46 10.088862
-61 -46 9.6021786
-62 -45 9.0124254
-63 -45 8.6284752
-63 -45 8.0384817
-64 -45 7.6543112
-65 -44 7.2700691
-66 -44 6.8857093
-66 -44 6.5012727
-67 -44 6.1167293
-68 -43 5.7321091
-69 -43 5.3473964
-70 -43 4.9625692
-70 -43 4.6807256
-71 -43 4.3987803
-72 -43 4.1167593
-73 -42 3.8346894
-74 -42 3.6555991
-74 -42 3.3733881
-75 -42 3.091068
-76 -42 2.911788
-77 -42 2.7324715
-77 -42 2.4499447
-78 -42 2.1673412
-79 -41 1.9878325
-80 -41 1.8082405
-81 -41 1.6285855
-81 -41 1.4488969
-82 -41 1.2691317
-83 -41 1.0892975
-84 -41 1.0126094
-85 -41 0.83269572
-85 -41 0.75590813
-86 -41 0.57586259
-87 -41 0.60221303
-88 -41 0.42206624
-89 -41 0.34510243
-89 -41 0.26811928
-90 -41 0.19107641
-91 -41 0.11399041
-92 -41 0.036854818
-93 -41 -0.040314998
-93 -41 -0.014234263
-94 -41 -0.091484182
-95 -41 -0.065471016
-96 -41 -0.14279161
-97 -41 -0.11683021
-98 -41 -0.19420582
-98 -41 -0.16830567
-99 -41 -0.24578086
-100 -41 -0.21993756
-101 -41 -0.29748854
-102 -41 -0.37507778
-102 -41 -0.34932929
-103 -41 -0.32360265
-104 -41 -0.29791117
-105 -41 -0.27223662
-106 -41 -0.35000318
-107 -41 -0.32438728
-107 -41 -0.29880062
-108 -41 -0.27323893
-109 -41 -0.35114676
-110 -41 -0.32563975
-111 -41 -0.30016491
-112 -41 -0.27471095
-112 -41 -0.24928316
-113 -41 -0.32736191
-114 -41 -0.40545836
-115 -41 -0.27664816
-116 -41 -0.35480982
-117 -41 -0.22603704
139 -36 -4.9557557
138 -36 -4.7171645
137 -36 -4.4786086
136 -36 -4.2400794
135 -37 -4.0015917
135 -37 -3.9642458
134 -37 -3.8263931
133 -37 -3.78917
132 -37 -3.6514239
131 -37 -3.6143367
130 -37 -3.5773194
130 -37 -3.4397345
129 -37 -3.4028456
128 -37 -3.2653642
127 -37 -3.2285979
126 -37 -3.1919022
125 -37 -3.0545797
125 -37 -2.91733
124 -37 -2.880811
123 -37 -2.844357
122 -37 -2.8079779
121 -37 -2.7716575
120 -37 -2.8361356
120 -37 -2.7999549
119 -37 -2.8646262
118 -37 -2.8285885
117 -37 -2.792614
116 -37 -2.7567046
115 -37 -2.7208602
114 -37 -2.6850758
114 -37 -2.6493526
113 -37 -2.6136899
112 -37 -2.5781
111 -37 -2.5425613
110 -37 -2.5070887
109 -37 -2.3707697
109 -38 -2.2345247
108 -38 -2.0982904
107 -38 -1.9620887
106 -38 -1.8259305
105 -38 -1.6898103
105 -38 -1.4527583
104 -38 -1.3167293
103 -38 -1.0797189
102 -38 -0.84272963
101 -38 -0.70675826
101 -39 -0.46983197
100 -39 -0.23290004
99 -39 0.00402231
98 -39 0.24093309
98 -39 0.37674057
97 -39 0.61360979
96 -39 0.8504712
95 -40 1.0873092
95 -40 1.4252173
94 -40 1.6620392
93 -40 1.9999534
92 -40 2.3379009
91 -40 2.5747097
91 -41 3.0137916
90 -41 3.4529023
89 -41 3.7908981
89 -41 4.2300596
88 -42 4.568079
87 -42 5.007288
86 -42 5.4465542
86 -43 5.8858247
85 -43 6.2239189
84 -43 6.5619903
83 -43 7.0013571
83 -43 7.3394647
82 -44 7.6776028
81 -44 8.1170187
80 -44 8.5564899
80 -44 8.9959707
79 -45 9.435503
78 -45 9.8750439
78 -45 10.314642
77 -46 10.754244
76 -46 11.295238
75 -46 11.937654
75 -47 12.580168
74 -47 13.222727
73 -47 13.966758
73 -48 14.710888
72 -48 15.455102
71 -49 16.199415
71 -49 16.943815
70 -50 17.789732
69 -50 18.838707
69 -51 20.09075
68 -52 21.850376
68 -54 23.91473
68 -55 26.080942
67 -56 28.247522
-48 -58 28.923559
-49 -56 25.872204
-50 -54 22.7176
-50 -52 19.459677
-51 -51 17.536833
-52 -51 16.538387
-52 -50 15.848002
-53 -50 15.260219
-54 -50 14.672322
-55 -49 13.981507
-56 -49 13.393353
-56 -48 12.599451
-57 -48 12.011013
-58 -48 11.319624
-59 -47 10.730917
-59 -47 10.24492
-60 -47 9.75879
-61 -46 9.2725658
-62 -46 8.7862329
-63 -46 8.2997904
-63 -46 7.81321
-64 -45 7.4294324
-65 -45 6.9426613
-66 -45 6.5586648
-66 -45 6.1745968
-67 -45 5.8933282
-68 -44 5.6120043
-69 -44 5.2276506
-70 -44 4.843224
-70 -44 4.4586744
-71 -44 4.2799854
-72 -43 3.8952672
-73 -43 3.6134629
-74 -43 3.3315597
-74 -43 3.15257
-75 -43 2.9735456
-76 -43 2.6914268
-77 -43 2.5122526
-77 -43 2.2300141
-78 -42 2.0507126
-79 -42 1.8713489
-80 -42 1.6919532
-81 -42 1.5124744
-81 -42 1.3329328
-82 -42 1.1533569
-83 -42 0.97369939
-84 -42 0.89707607
-85 -42 0.82041401
-85 -42 0.64059025
-86 -42 0.56385732
-87 -42 0.48705617
-88 -42 0.41021159
-89 -42 0.33332443
-89 -42 0.25639528
-90 -42 0.17942439
-91 -42 0.10241227
-92 -42 0.025379971
-93 -42 -0.051718466
-94 -42 -0.025670562
-94 -42 -0.10284409
-95 -42 -0.076854594
-96 -42 -0.15410909
-97 -42 -0.12817559
-98 -42 -0.20550439
-98 -42 -0.17963569
-99 -42 -0.1537905
-100 -42 -0.23123181
-101 -42 -0.20545073
-102 -42 -0.28296566
-103 -42 -0.25724006
-103 -42 -0.23154442
-104 -42 -0.30914372
-105 -42 -0.28350705
-106 -42 -0.25789556
-107 -42 -0.33563006
-108 -42 -0.31007838
-108 -42 -0.284549
-109 -42 -0.25904796
-110 -42 -0.23357551
-111 -42 -0.20812725
-112 -42 -0.18270354
-113 -42 -0.15730704
-113 -42 -0.33870479
-114 -42 -0.31337881
-115 -42 -0.49487266
-116 -42 -0.26279646
138 -37 -4.8444896
137 -37 -4.6060305
136 -37 -4.3676195
136 -37 -4.2296667
135 -38 -4.091763
134 -38 -4.0543885
133 -38 -3.9165957
132 -38 -3.7788446
131 -38 -3.7416582
131 -38 -3.6040213
130 -38 -3.5669689
129 -38 -3.4294567
128 -38 -3.3925285
127 -38 -3.2550991
126 -38 -3.1177182
126 -38 -3.0809765
125 -38 -3.0442982
124 -38 -2.9070709
123 -38 -2.8705211
122 -38 -2.8340304
121 -38 -2.7976153
121 -38 -2.8619139
120 -38 -2.8256397
119 -38 -2.7894254
118 -38 -2.8539674
117 -38 -2.8178985
116 -38 -2.7818897
115 -38 -2.8466651
115 -38 -2.8108037
114 -38 -2.774996
113 -38 -2.7392526
112 -38 -2.7035728
111 -38 -2.5671735
110 -38 -2.5316041
110 -38 -2.3953068
109 -38 -2.3598459
108 -39 -2.122808
107 -39 -2.0874557
106 -39 -1.8504691
106 -39 -1.7143809
105 -39 -1.5783154
104 -39 -1.3413978
103 -39 -1.1045047
102 -39 -0.86765045
102 -39 -0.73169953
101 -40 -0.49486184
100 -40 -0.2580393
99 -40 -0.12217025
98 -40 0.11458521
98 -40 0.35135463
97 -40 0.58810967
96 -40 0.82482439
95 -41 1.0615511
95 -41 1.2982578
94 -41 1.5349535
93 -41 1.8726408
92 -41 2.210356
92 -41 2.5480535
91 -42 2.885788
90 -42 3.3245649
89 -42 3.7634001
89 -42 4.1011553
88 -43 4.5400381
87 -43 4.8778195
86 -43 5.3167572
86 -43 5.6545663
85 -44 5.992415
84 -44 6.4313912
83 -44 6.7692657
83 -44 7.1071234
82 -45 7.5462022
81 -45 7.8840914
81 -45 8.3232145
80 -45 8.6611385
79 -45 9.1003113
78 -46 9.5394936
78 -46 9.9787359
77 -46 10.417976
76 -47 10.958518
75 -47 11.600372
75 -47 12.242328
74 -48 12.88433
73 -48 13.627706
73 -49 14.371166
72 -49 15.013409
71 -50 15.757048
71 -50 16.602118
70 -51 17.345955
69 -51 18.292572
69 -52 19.543459
68 -53 21.098631
68 -54 23.059635
67 -55 25.122341
67 -57 27.185404
67 -58 29.24881
-49 -57 25.834383
-50 -55 21.75922
-50 -53 18.607027
-51 -52 16.891285
-52 -51 16.09906
-52 -51 15.409328
-53 -51 14.924765
-54 -50 14.337441
-55 -50 13.74998
-56 -50 13.059695
-56 -49 12.369265
-57 -49 11.678684
-58 -48 10.98796
-59 -48 10.399815
-59 -48 9.9142818
-60 -48 9.4286127
-61 -47 8.9428549
-62 -47 8.5597467
-63 -47 8.0737495
-63 -46 7.587667
-64 -46 7.2042584
-65 -46 6.7179585
-66 -46 6.3343258
-66 -46 5.9506226
-67 -45 5.6696286
-68 -45 5.388577
-69 -45 4.9017453
-70 -45 4.6205297
-70 -45 4.236351
-71 -44 3.9549618
-72 -44 3.6734776
-73 -44 3.3919363
-74 -44 3.1102986
-74 -44 3.0343752
-75 -44 2.7526202
-76 -44 2.4707646
-77 -44 2.2917604
-77 -43 2.1127107
-78 -43 1.9335821
-79 -43 1.7543932
-80 -43 1.5751458
-81 -43 1.3958589
-81 -43 1.2164904
-82 -43 1.0370648
-83 -43 0.85759735
-84 -43 0.781048
-85 -43 0.70444995
-85 -43 0.62781054
-86 -43 0.55112499
-87 -43 0.47440132
-88 -43 0.39763203
-89 -43 0.32084817
-90 -43 0.24399514
-90 -43 0.064040534
-91 -43 0.090155758
-92 -42 -0.089905225
-93 -43 -0.063854031
-94 -42 -0.14092006
-94 -43 -0.11493307
-95 -43 -0.19205265
-96 -43 -0.16612709
-97 -43 -0.14022668
-98 -43 -0.11435115
-99 -43 -0.19164832
-99 -43 -0.16583043
-100 -43 -0.2432014
-101 -43 -0.21745539
-102 -43 -0.19172901
-103 -43 -0.26921013
-103 -43 -0.24354458
-104 -43 -0.32110626
-105 -43 -0.29550248
-106 -43 -0.26992935
-107 -43 -0.2443763
-108 -43 -0.21885158
-108 -43 -0.29659048
-109 -43 -0.27113029
-110 -43 -0.24569267
-111 -43 -0.22028287
-112 -43 -0.19490139
-113 -43 -0.066270821
-114 -43 -0.040930137
-114 -43 -0.11890882
-115 -43 -0.30020508
138 -38 -4.9723444
137 -38 -4.7340031
136 -38 -4.4956698
136 -38 -4.3577151
135 -38 -4.2198129
134 -38 -4.1823339
133 -38 -4.0445418
132 -39 -3.9068253
132 -39 -3.8695369
131 -39 -3.7318966
130 -39 -3.5943115
129 -39 -3.5572152
128 -39 -3.4197359
127 -39 -3.2823069
127 -39 -3.2453916
126 -39 -3.108067
125 -39 -3.071281
124 -39 -2.9340575
123 -39 -2.897402
122 -39 -2.8608124
122 -39 -2.8242912
121 -39 -2.7878318
120 -39 -2.8520124
119 -39 -2.8157015
118 -39 -2.8800457
117 -39 -2.843873
116 -39 -2.8077707
116 -39 -2.771733
115 -39 -2.8363864
114 -39 -2.8004856
113 -39 -2.7646494
112 -39 -2.7288721
111 -39 -2.5924854
110 -39 -2.5568259
110 -39 -2.5212262
109 -39 -2.3849795
108 -39 -2.2487702
107 -40 -2.1126275
106 -40 -1.9764971
106 -40 -1.73965
105 -40 -1.6035914
104 -40 -1.3667942
103 -40 -1.2308207
102 -40 -0.99406087
102 -40 -0.75732553
101 -41 -0.52060479
100 -41 -0.38474965
99 -41 -0.14806294
99 -41 -0.012251101
98 -41 0.2243913
97 -41 0.46099383
96 -41 0.69760501
95 -41 0.93420213
95 -42 1.1707789
94 -42 1.5082419
93 -42 1.8457295
92 -42 2.0822697
92 -42 2.5207086
91 -43 2.8581941
90 -43 3.195714
90 -43 3.6341975
89 -43 3.9717398
88 -44 4.4102712
87 -44 4.7478442
87 -44 5.1864185
86 -44 5.5240235
85 -44 5.8616123
84 -45 6.1992302
84 -45 6.5368605
83 -45 6.8744774
82 -45 7.3132033
81 -46 7.6508431
81 -46 7.9885273
80 -46 8.4272957
79 -46 8.8661289
78 -47 9.2038326
78 -47 9.6427107
77 -47 10.081596
76 -47 10.621675
75 -48 11.26298
75 -48 11.904369
74 -49 12.545814
73 -49 13.288528
73 -49 13.930126
72 -50 14.57179
71 -50 15.314765
71 -51 16.057825
70 -51 16.80098
69 -52 17.645485
69 -53 18.79389
68 -53 20.246309
68 -55 22.104122
67 -56 24.06352
67 -57 26.023247
66 -58 27.983301
66 -59 29.94371
-49 -58 25.693344
-50 -55 20.904428
-50 -54 18.062849
-51 -53 16.348747
-52 -52 15.659821
-52 -52 15.07331
-53 -52 14.589218
-54 -51 14.002451
-55 -51 13.415562
-56 -51 12.828537
-56 -50 12.138771
-57 -50 11.448865
-58 -49 10.758811
-59 -49 10.171241
-59 -49 9.5835371
-60 -48 9.2009773
-61 -48 8.7156916
-62 -48 8.2302952
-63 -48 7.7447567
-63 -47 7.2591362
-64 -47 6.8760877
-65 -47 6.3902502
-66 -47 6.109684
-66 -46 5.7263527
-67 -46 5.4456229
-68 -46 5.1648235
-69 -46 4.7812252
-70 -46 4.3975325
-70 -45 4.0137205
-71 -45 3.8353393
-72 -45 3.4513814
-73 -45 3.1700835
-74 -45 2.8887317
-74 -45 2.710083
-75 -45 2.5313647
-76 -45 2.3526196
-77 -44 2.1737816
-78 -44 1.8920524
-78 -44 1.713112
-79 -44 1.636937
-80 -44 1.3550054
-81 -44 1.2787201
-81 -44 1.0995448
-82 -44 0.92028999
-83 -44 0.84385866
-84 -44 0.76738071
-85 -44 0.58798349
-86 -44 0.61432683
-86 -44 0.43480262
-87 -44 0.4610759
-88 -44 0.28144377
-89 -44 0.30764318
-90 -44 0.12791194
-90 -44 0.15403701
-91 -43 -0.025768068
-92 -43 0.00028848357
-93 -43 -0.17964928
-94 -43 -0.15366176
-94 -43 -0.23069902
-95 -43 -0.20477518
-96 -44 -0.1788803
-97 -43 -0.25603238
-98 -44 -0.23019764
-99 -44 -0.2043858
-99 -44 -0.17860661
-100 -44 -0.15284929
-101 -44 -0.2301856
-102 -44 -0.20449843
-103 -44 -0.28188795
-104 -44 -0.25625581
-104 -44 -0.23065609
-105 -44 -0.20507719
-106 -44 -0.28264162
-107 -44 -0.25712803
-108 -44 -0.23164004
-109 -44 -0.30932009
-109 -44 -0.28389135
-110 -44 -0.25849244
-111 -44 -0.12996417
-112 -44 -0.0014460158
-113 -44 0.33339241
-114 -44 0.35871696
-115 -44 0.48721629
137 -39 -4.7622547
137 -39 -4.6242518
136 -39 -4.5865512
135 -39 -4.4486527
134 -39 -4.3108358
133 -39 -4.2733293
132 -39 -4.1355972
132 -39 -3.9979219
131 -40 -3.8602831
130 -40 -3.7226992
129 -40 -3.6855104
128 -40 -3.5480311
128 -40 -3.4106061
127 -40 -3.2732425
126 -40 -3.13591
125 -40 -3.0990272
124 -40 -3.0622103
123 -40 -3.0254564
123 -40 -2.9887803
122 -40 -2.9521632
121 -40 -2.9156148
120 -40 -2.8791451
119 -40 -2.8427267
118 -40 -2.9068739
117 -40 -2.8706055
117 -40 -2.8344042
116 -40 -2.8987622
115 -40 -2.8627009
114 -40 -2.8267031
113 -40 -2.7907734
112 -40 -2.7549033
111 -40 -2.7190905
111 -40 -2.6833525
110 -40 -2.5470965
109 -40 -2.4108555
108 -40 -2.2746551
107 -41 -2.1384962
107 -41 -2.0023744
106 -41 -1.8662966
105 -41 -1.629618
104 -41 -1.3929293
103 -41 -1.1562569
103 -41 -1.0203029
102 -41 -0.78369868
101 -41 -0.64780515
100 -42 -0.41122404
100 -42 -0.17466028
99 -42 -0.038854741
98 -42 0.19764522
97 -42 0.33338475
96 -42 0.56986642
96 -42 0.80633652
95 -43 1.1435779
94 -43 1.3800231
93 -43 1.7172562
93 -43 2.0545254
92 -43 2.3917768
91 -44 2.8299131
90 -44 3.1671903
90 -44 3.5044956
89 -44 3.9426777
88 -44 4.2800093
87 -45 4.617353
87 -45 4.9546766
86 -45 5.2920408
85 -45 5.6293793
84 -46 5.9667535
84 -46 6.4050722
83 -46 6.6415067
82 -46 7.0798655
81 -46 7.4172869
81 -47 7.754715
80 -47 8.1931438
79 -47 8.6315975
78 -47 8.96908
78 -48 9.4075918
77 -48 9.8461485
76 -48 10.385781
75 -49 10.92546
75 -49 11.566294
74 -49 12.20718
73 -50 12.848135
73 -50 13.590275
72 -51 14.231383
71 -51 14.872565
71 -52 15.614952
70 -52 16.357433
69 -53 17.20117
69 -53 18.247339
68 -54 19.394861
68 -55 21.048489
67 -56 23.005962
67 -57 24.862564
66 -59 26.820709
66 -60 28.677925
-49 -59 24.425184
-49 -56 20.255402
-50 -54 17.518988
-51 -53 15.90894
-52 -53 15.220677
-52 -53 14.737187
-53 -52 14.25356
-54 -52 13.769839
-55 -52 13.183518
-56 -51 12.597068
-56 -51 11.907978
-57 -51 11.218741
-58 -50 10.631883
-59 -50 9.9423571
-59 -49 9.4577465
-60 -49 8.9730406
-61 -49 8.4882269
-62 -49 7.900733
-63 -48 7.5182347
-63 -48 7.0330806
-64 -48 6.5478101
-65 -48 6.1650119
-66 -47 5.7821321
-66 -47 5.5017562
-67 -47 5.2213202
-68 -47 4.8381524
-69 -47 4.4549165
-70 -46 4.0715837
-70 -46 3.7907844
-71 -46 3.5099089
-72 -46 3.2289853
-73 -46 2.9479518
-74 -46 2.6668723
-74 -46 2.4883831
-75 -45 2.3098357
-76 -45 2.1312473
-77 -45 1.9525797
-78 -45 1.7738509
-78 -45 1.5950541
-79 -45 1.4162245
-80 -45 1.2373145
-81 -45 1.1610984
-82 -45 0.98207378
-82 -45 0.90579128
-83 -45 0.82943857
-84 -45 0.650244
-85 -45 0.67660427
-86 -45 0.49730319
-86 -45 0.52358681
-87 -45 0.34421217
-88 -45 0.37042272
-89 -44 0.19091408
-90 -45 0.21705203
-90 -44 0.037441265
-91 -44 0.063515186
-92 -44 -0.11620273
-93 -44 -0.090205371
-94 -44 -0.16710563
-95 -44 -0.24407427
-95 -44 -0.21817411
-96 -44 -0.19230843
-97 -44 -0.16646634
-98 -45 -0.14065595
-99 -45 -0.21780311
-99 -45 -0.19205563
-100 -45 -0.16633201
-101 -45 -0.24360272
-102 -45 -0.21794598
-103 -45 -0.19231385
-104 -45 -0.16671109
-104 -45 -0.24412595
-105 -45 -0.21858878
-106 -45 -0.29609039
-107 -45 -0.27060997
-108 -45 -0.24516293
-109 -45 -0.21973974
-109 -45 -0.29738763
-110 -45 -0.16897862
-111 -45 -0.040576242
-112 -45 0.08780773
-113 -46 0.83461398
-114 -46 1.5814979
142 -40 -4.8817258
138 -40 -4.8913736
137 -40 -4.7533846
136 -40 -4.7155857
135 -40 -4.677856
134 -40 -4.5400233
133 -40 -4.5024281
133 -40 -4.3647118
132 -40 -4.2270408
131 -40 -4.0894184
130 -40 -3.9518509
129 -41 -3.8143251
129 -41 -3.576623
128 -41 -3.5394523
127 -41 -3.4020813
126 -41 -3.2647521
125 -41 -3.2277713
124 -41 -3.0905421
124 -41 -3.0536954
123 -41 -3.0169108
122 -41 -2.9801981
121 -41 -2.9435463
120 -41 -2.906966
119 -41 -2.9708378
118 -41 -2.934402
118 -41 -2.8980339
117 -41 -2.8617303
116 -41 -2.9259207
115 -41 -2.8897612
114 -41 -2.8536673
113 -41 -2.8176374
112 -41 -2.7816701
112 -41 -2.7457762
111 -41 -2.609452
110 -41 -2.5736623
109 -41 -2.5379415
108 -41 -2.4017632
107 -41 -2.2656219
107 -42 -2.0290031
106 -42 -1.892933
105 -42 -1.6563355
104 -42 -1.5203373
104 -42 -1.2837909
103 -42 -1.0472775
102 -42 -0.81076235
101 -42 -0.67488348
100 -42 -0.53904766
100 -43 -0.30262819
99 -43 -0.066201717
98 -43 0.06954965
97 -43 0.30592799
96 -43 0.54227525
96 -43 0.77862543
95 -43 1.0149643
94 -44 1.3519777
93 -44 1.5882925
93 -44 1.925333
92 -44 2.262352
91 -44 2.70016
90 -45 3.0372076
90 -45 3.3742814
89 -45 3.7113431
88 -45 4.0484362
87 -46 4.3855071
87 -46 4.7226124
86 -46 5.0597296
85 -46 5.3968272
84 -46 5.733963
84 -47 6.0710702
83 -47 6.4082222
82 -47 6.7453513
81 -47 7.1834064
81 -47 7.5205731
80 -48 7.857758
79 -48 8.2958603
78 -48 8.7340126
78 -49 9.1721716
77 -49 9.6103859
76 -49 10.048609
75 -49 10.587827
75 -50 11.127127
74 -50 11.76744
73 -51 12.407825
73 -51 13.149298
72 -51 13.688807
71 -52 14.43044
71 -52 15.172163
70 -53 15.812922
69 -53 16.655876
69 -54 17.600019
68 -55 18.746428
67 -56 20.297379
67 -57 22.050781
67 -58 23.905561
66 -59 25.659557
66 -60 27.413811
65 -61 29.269524
-49 -60 24.284218
-49 -57 19.606836
-50 -55 17.282396
-51 -54 15.673926
-52 -54 14.883974
-52 -53 14.400954
-53 -53 13.917789
-54 -53 13.434534
-55 -53 12.951172
-56 -52 12.365297
-56 -52 11.676875
-57 -51 11.090726
-58 -51 10.402019
-59 -51 9.7131691
-59 -50 9.2290306
-60 -50 8.7447987
-61 -50 8.1579962
-62 -49 7.6735282
-63 -49 7.1889286
-63 -49 6.7042365
-64 -49 6.3219233
-65 -48 5.8369904
-66 -48 5.5569835
-66 -48 5.1743608
-67 -48 4.8941846
-68 -48 4.6139102
-69 -47 4.2310386
-70 -47 3.8480494
-70 -47 3.5675459
-71 -47 3.286938
-72 -47 3.0062785
-73 -47 2.7255123
-74 -46 2.4447
-74 -46 2.2663782
-75 -46 2.0879955
-76 -46 1.9095519
-77 -46 1.7310674
-78 -46 1.5525041
-78 -46 1.3738773
-79 -46 1.2978371
-80 -46 1.119114
-81 -46 1.0429757
-82 -46 0.86411971
-82 -46 0.78788602
-83 -46 0.71160066
-84 -46 0.63529962
-85 -46 0.55893177
-86 -46 0.48251414
-86 -46 0.40605092
-87 -45 0.3295446
-88 -45 0.25299764
-89 -45 0.17640178
-90 -45 0.099786602
-91 -45 0.12586537
-91 -45 -0.053621918
-92 -45 -0.027617207
-93 -45 -0.10442805
-94 -45 -0.18128021
-95 -45 -0.15537624
-95 -45 -0.23230851
-96 -45 -0.20647047
-97 -45 -0.18065731
-98 -45 -0.25770745
-99 -45 -0.23196273
-100 -46 -0.20624237
-100 -46 -0.18055019
-101 -46 -0.1548904
-102 -46 -0.23210795
-103 -46 -0.20650728
-104 -46 -0.28382483
-105 -46 -0.25829449
-105 -46 -0.23279023
-106 -46 -0.31022099
-107 -46 -0.28478205
-108 -46 -0.36229825
-109 -46 -0.33691809
-110 -46 -0.31157178
-110 -46 -0.18329826
-111 -46 -0.055038627
-112 -46 0.48505235
-113 -47 1.2311492
-114 -47 2.1832874
141 -41 -4.6737838
140 -41 -4.7354417
140 -41 -4.697196
139 -41 -4.8590603
138 -41 -4.7209654
137 -41 -4.8830409
136 -41 -4.8451347
135 -41 -4.8072953
134 -41 -4.7695441
133 -41 -4.6317711
133 -41 -4.5941534
132 -41 -4.4564939
131 -41 -4.2187676
130 -41 -4.0812211
129 -41 -3.9437046
129 -42 -3.8062401
128 -42 -3.6688199
127 -42 -3.4312646
126 -42 -3.3941185
125 -42 -3.2568495
125 -42 -3.2198319
124 -42 -3.0826831
123 -42 -3.0457993
122 -42 -3.0089831
121 -42 -2.9722333
120 -42 -3.0357997
119 -42 -2.9991934
119 -42 -3.0629494
118 -42 -3.0264947
117 -42 -2.9901066
116 -42 -2.9537857
115 -42 -2.9175258
114 -42 -2.8813357
113 -42 -2.845212
113 -42 -2.8091493
112 -42 -2.7731516
111 -42 -2.7372236
110 -42 -2.6009605
109 -42 -2.4647536
108 -42 -2.4289982
108 -42 -2.19243
107 -43 -2.0563297
106 -43 -1.9202663
105 -43 -1.6837827
104 -43 -1.5478108
104 -43 -1.3113788
103 -43 -1.175452
102 -43 -0.93906343
101 -43 -0.70271546
101 -43 -0.56688571
100 -44 -0.43109781
99 -44 -0.19479311
98 -44 0.041491728
97 -44 0.27772987
97 -44 0.41339839
96 -44 0.6496253
95 -44 0.88581467
94 -45 1.222622
94 -45 1.5594375
93 -45 1.8962318
92 -45 2.233057
91 -45 2.5698647
91 -46 2.9067037
90 -46 3.2435248
89 -46 3.5803747
88 -46 3.9172337
88 -46 4.1533713
87 -47 4.5909548
86 -47 4.8270764
85 -47 5.163959
84 -47 5.500845
84 -47 5.9384789
83 -48 6.1746154
82 -48 6.5115037
81 -48 6.9492149
81 -48 7.2861233
80 -49 7.6230736
79 -49 8.0608196
78 -49 8.3977966
78 -49 8.835597
77 -50 9.2734528
76 -50 9.7113161
75 -50 10.250076
75 -51 10.788913
74 -51 11.428668
73 -51 12.068495
73 -52 12.708392
72 -52 13.247437
71 -53 13.988395
71 -53 14.729449
70 -53 15.369637
69 -54 16.110861
69 -55 17.155088
68 -55 18.199472
67 -56 19.647955
67 -57 21.197643
66 -58 22.949635
66 -59 24.802908
65 -60 26.454449
65 -61 28.10626
-48 -63 28.405876
-49 -60 24.142715
-49 -57 19.367683
-50 -56 17.045481
-51 -55 15.540843
-52 -55 14.649418
-52 -54 14.064609
-53 -54 13.581914
-54 -54 13.201408
-55 -53 12.718521
-56 -53 12.133215
-56 -53 11.547753
-57 -52 10.859867
-58 -52 10.274159
-59 -52 9.5859842
-59 -51 9.0000105
-60 -51 8.4138966
-61 -51 7.9300137
-62 -50 7.3436551
-63 -50 6.8595128
-63 -50 6.4776711
-64 -49 5.9933348
-65 -49 5.6112633
-66 -49 5.2291155
-66 -49 4.9492702
-67 -49 4.5669403
-68 -48 4.2869291
-69 -48 3.9044149
-70 -48 3.6242356
-70 -48 3.2415423
-71 -48 3.0636606
-72 -48 2.7832682
-73 -47 2.5027726
-74 -47 2.3246889
-74 -47 2.1465657
-75 -47 1.9683551
-76 -47 1.7900876
-77 -47 1.6117544
